# .PCD v0.7 - Point Cloud Data file format
VERSION 0.7
FIELDS x y z normal_x normal_y normal_z curvature
SIZE 4 4 4 4 4 4 4
TYPE F F F F F F F
COUNT 1 1 1 1 1 1 1
WIDTH 603
HEIGHT 1
VIEWPOINT 0 0 0 1 0 0 0
POINTS 603
DATA ascii
0.92360222 9.2060709 -2.8799517 -0.58834243 -0.73293906 -0.34154579 0.1371718
-3.5921848 -5.1613331 -1.3130403 0.34426516 -0.77938241 0.52349269 0.0014598513
-2.9785385 -5.9532518 -1.9957235 0.32894611 -0.063303493 0.94222456 0.055662591
-0.97807205 2.0961678 -2.3871391 -0.11885293 -0.70334524 0.70084196 0.002781545
-3.2464788 2.1155279 -2.1900613 0.32245201 -0.58021933 0.74791056 0.0004094099
1.8286777 -0.31699288 -4.4583759 -0.10778386 -0.46274358 0.87991536 0.0042694383
-2.2059085 2.3855908 -2.2849264 0.10305919 -0.53095222 0.84111148 0.0022402834
-0.81419736 2.9113479 -1.4438658 -0.44114718 -0.79601127 0.41443363 0.0019976618
-0.26297855 2.3537493 -2.0576687 0.018577794 -0.80874383 0.58786762 0.00097158027
4.2095976 2.298589 -2.2336218 -0.36047214 -0.57247841 0.73642945 0.0019823189
5.8212538 1.5158621 -1.7906907 -0.61835909 -0.47547647 0.62574285 0.0011489312
3.0033767 1.9261205 -2.8277891 -0.028656144 -0.48937252 0.87160391 0.0020674814
5.3622618 1.3608036 -2.2254269 -0.37809646 -0.50884646 0.77338111 0.000961065
5.5279794 2.267065 -1.1979043 -0.5785557 -0.70970005 0.40199399 0.0017532364
3.4921455 3.0422773 -1.6317971 -0.17633168 -0.77592456 0.60567993 0.0012648866
1.6069832 0.17084512 -3.9650519 -0.0001061603 -0.8799879 0.47499612 0.0021722452
-0.54869354 -5.8420153 -3.9522197 -0.12301516 -0.15059645 0.98091179 0.0043640821
2.6694791 0.57407469 -3.1853306 -0.13881142 -0.40604243 0.90325022 0.029462986
1.0338804 0.78825438 -3.2210031 0.0059335916 -0.29314384 0.95604992 0.0036951434
-0.2507621 -5.8761816 -3.9004974 -0.23356207 -0.057615269 0.97063345 0.0012556387
3.8922069 -0.21744376 -3.7452362 -0.40722466 -0.59328723 0.69439065 0.0015289641
0.4955748 -0.04099771 -3.9498768 0.29845345 -0.8811937 0.36663774 0.0005481249
7.96173 -3.5992401 -1.2192799 -0.54149979 -0.02972508 0.84017521 0.0074589923
8.0369949 -3.6460223 -1.1622027 -0.63534141 0.056193575 0.7701841 0.0059943753
3.5326116 2.4254253 -2.3680239 -0.090518981 -0.5982343 0.79619223 0.001634231
8.2416382 -2.7429731 -0.68257618 -0.43135691 -0.50855768 0.74518478 0.0057676644
8.3302851 -2.7744806 -0.6486364 -0.55544031 -0.44613522 0.70174742 0.0076638306
1.9266466 2.3941004 -2.3230457 -0.010983053 -0.61380029 0.7893849 0.0022050149
2.3401694 2.3734436 -2.3024669 0.037426781 -0.67969847 0.7325362 0.0024403718
-0.97906131 1.9980885 -2.4845891 -0.063454777 -0.64978755 0.75746262 0.0038503844
4.2840009 2.7331069 -1.7010032 -0.38254485 -0.75173914 0.53716642 0.0015964111
-2.330004 2.252516 -2.3455014 0.093754984 -0.48816034 0.86770356 0.0021017611
2.5467117 2.8615422 -1.8263503 -0.054681536 -0.71054608 0.70152277 0.0028044845
-3.3108432 -5.8799324 -1.8541322 0.35849991 -0.16920231 0.91806775 0.015454157
1.229269 1.5665543 -2.8379118 -0.035404246 -0.50453186 0.8626669 0.0047903755
5.3293538 0.89804554 -2.5290203 -0.38271737 -0.46670121 0.79731888 0.00061829132
2.130172 1.6750261 -2.9574425 -0.075642847 -0.64927524 0.75678253 0.0033278817
1.1268752 1.5749463 -2.8471479 -0.11264873 -0.45621589 0.88271022 0.002752692
5.8592563 0.68255615 -2.3020253 -0.5661177 -0.28071749 0.77505386 0.00087791297
-0.98014438 -4.6886139 -2.4158468 0.30105716 -0.93502831 0.18731427 0.0021256218
0.9517827 2.1425445 -2.4485197 0.11151339 -0.71155941 0.6937204 0.0048637628
-0.56558824 2.1746871 -2.2711527 0.05410498 -0.73847651 0.67210501 0.00028541769
5.5327997 -0.54104394 -3.0004253 -0.5797962 -0.18509476 0.79345846 0.0016397767
0.42122635 -0.18546888 -4.205215 0.33444923 -0.79336029 0.50864834 0.002540997
-1.7710348 1.589088 -2.6494207 0.058588129 -0.51986879 0.8522346 0.001774708
-2.1455441 -5.790535 -2.1237631 0.59338009 -0.26902193 0.75863516 0.064039193
7.4201326 -2.906291 -0.92249614 0.10190444 -0.63702166 0.76408041 0.00055205816
0.50766701 8.947648 -2.7766156 0.72121823 -0.54073161 0.43295917 0.0028314791
7.3075409 -2.9169776 -0.91293478 0.077424072 -0.61772043 0.7825771 0.0021459372
0.83059114 9.1546583 -3.0014336 0.32717079 -0.90625578 0.2676934 0.085061848
0.97022271 9.2110529 -3.0580981 0.05184209 -0.97049385 0.23548678 0.097206235
5.6114969 2.2228217 -1.1491883 -0.60494506 -0.70447004 0.37116498 0.0010712633
1.4450729 1.5786704 -2.8524661 0.21157253 -0.57418096 0.79091924 0.0028682242
-0.72652817 2.8761046 -1.4043872 -0.43418854 -0.80441254 0.40546361 0.001755339
-3.0085938 2.3771427 -2.0639427 0.28582031 -0.65403664 0.70038766 0.0003045843
-2.0894666 -5.4645295 -2.0633755 0.48437026 -0.31220001 0.81726164 0.033249933
-1.8739823 2.7201977 -2.0382435 0.015941694 -0.6769442 0.73586166 0.00029461368
-1.6746668 2.3893054 -2.2926812 -0.10969646 -0.51906216 0.84766805 0.0012332838
-1.3791451 2.3470738 -2.2491496 -0.2266243 -0.49632147 0.83803725 0.0011201692
4.0261693 2.453351 -2.1999445 -0.34310165 -0.63312346 0.69385582 0.0012241945
4.1191821 2.4282019 -2.1734676 -0.3654736 -0.62574357 0.68911105 0.0015125872
5.8859224 1.8401291 -1.3365587 0.68006939 0.62240964 -0.38744265 0.00070275442
2.7409511 0.11763608 -3.9017355 -0.1867782 -0.82173997 0.53838396 0.002228494
1.5002618 0.17198601 -3.9654732 0.045548752 -0.88999504 0.45368949 0.0031639258
1.3741261 2.0432484 -2.5438876 0.013532509 -0.52360803 0.85185182 0.0012741799
4.3834324 2.0255394 -2.3385618 -0.31250593 -0.47296575 0.82379818 0.00092257542
0.1817376 -0.44783509 -4.3389521 0.48605531 -0.57664454 0.65668201 0.0037395109
5.9808249 0.31802243 -2.3053513 -0.5897432 -0.11347506 0.79957885 0.0005622289
0.9103725 0.64893574 -3.2691665 -0.045662388 -0.24192937 0.96921885 0.0022932286
1.8685882 0.6615864 -3.2712209 -0.13863906 -0.28799191 0.9475441 0.018011197
0.069559723 2.2809091 -2.1856995 0.050474524 -0.74666584 0.66328162 0.0031842897
4.9586082 -1.2426808 -3.4768651 -0.4613685 -0.049346272 0.88583523 0.00073907874
-3.0047476 2.2755115 -2.1593535 0.29031825 -0.6202448 0.72870553 0.00065273099
5.0435333 -1.2811482 -3.4335647 -0.47320351 -0.045197412 0.87979293 0.00081380137
5.212986 -1.3720336 -3.3436956 -0.55245656 -0.070020542 0.83059549 0.002657199
8.1055193 -3.7245266 -1.082812 0.7207768 -0.15441826 -0.67574835 0.0037084122
3.9298775 2.3724782 -2.3126104 -0.30275732 -0.58720016 0.75068897 0.0015928874
4.75211 0.81134385 -2.8361564 -0.31681445 -0.63817233 0.70168704 0.001652819
5.1128416 2.2928843 -1.6276633 -0.57123512 -0.63491178 0.52017063 0.0014416834
5.7126102 2.0190282 -1.3329332 -0.60578495 -0.65916055 0.44556925 0.0011605187
-0.56184775 1.9847002 -2.472254 0.036690988 -0.67949969 0.73275775 0.0013734153
-0.6720112 1.9792923 -2.4650569 0.016453775 -0.68576938 0.72763288 0.0030715035
8.0036602 -3.3117452 -1.1114999 -0.52650303 -0.39049342 0.75518835 0.0061594378
3.2198236 2.3336918 -2.467869 -0.066479579 -0.69820905 0.7128005 0.0030458777
3.418982 -0.31327999 -4.0524054 -0.43664134 -0.42854655 0.7910071 0.0046868552
-0.35954314 2.2704825 -2.1711421 0.0068753012 -0.77660245 0.6299535 0.0018384906
-0.25249013 1.8688936 -2.552145 -0.13742568 -0.57514262 0.80642742 0.0031236599
-0.76548058 -4.9860206 -3.5648968 0.27974132 -0.74350595 0.60740733 0.0024683154
-0.61216635 1.4823017 -2.743217 -0.12127753 -0.39079037 0.91245526 0.0037724425
-0.4076373 1.4720106 -2.7349052 0.050281305 -0.44114709 0.89602512 0.0070179282
3.6899662 1.8204951 -2.714344 -0.28538471 -0.51113135 0.81074059 0.0037890885
5.2586656 -3.2766728 -3.2048385 -0.60890657 -0.1780991 0.77298999 0.00038261342
5.3406997 -3.322983 -3.1562793 -0.64796335 -0.12356943 0.75158107 0.0036516204
5.0283141 0.6301201 -2.8432825 -0.42900375 -0.46552479 0.77410752 0.0022593716
-0.64940989 -5.1786289 -3.7831481 0.17570437 -0.53399026 0.82703227 0.0046065059
2.3405626 2.1703296 -2.4856749 0.15201795 -0.62710488 0.76395679 0.0037469021
7.2753816 -2.1436961 -0.50115722 0.93636572 0.11248691 -0.33251455 0.010771865
7.3306165 -2.2515011 -0.38834521 0.83896488 0.36369711 -0.4047991 0.031514138
-0.97900361 2.6031783 -1.9167335 -0.41533035 -0.62909681 0.65706766 0.0032182585
1.0601876 -0.68042225 -4.6967869 0.022595484 -0.40770486 0.91283417 0.0010090068
1.4638234 -0.82811564 -4.7338223 -0.18990214 -0.3020525 0.93418491 0.0074049463
7.4021211 -2.3165989 -0.32060894 -0.57580447 -0.68159765 0.45152399 0.057742912
7.4951625 -2.3450844 -0.29015934 -0.30219522 -0.84257102 0.44581622 0.036063824
0.83011985 9.0783596 -3.1219296 0.53749663 -0.64685786 0.54099196 0.072499409
0.98162323 9.1204605 -3.1889489 0.028540874 -0.92980951 0.36693281 0.12340854
5.096972 1.6662549 -2.150991 -0.48063239 -0.40776157 0.77635235 0.0030030243
7.6026864 -2.3489351 -0.2890864 -0.049698878 -0.9073835 0.41735503 0.0099809458
1.9174238 1.6742409 -2.9560902 0.11074722 -0.64483047 0.75625968 0.005004765
3.9756057 0.038521223 -3.4168754 -0.39011845 -0.67359018 0.62776101 0.0051572113
-1.262795 -4.8380299 -2.685384 0.35907364 -0.91244364 0.19624658 0.00095120206
3.4217038 -0.0017458097 -3.7743146 -0.35245687 -0.72837991 0.58756864 0.0042028087
-2.7718329 2.4229138 -2.1162233 0.2467045 -0.66366589 0.70617598 0.00074921391
-0.69666171 1.6277626 -2.6990225 -0.08751943 -0.42516586 0.9008742 0.0041729095
1.8954961 1.9348276 -2.6319809 0.085508518 -0.70386946 0.7051639 0.005832775
-0.98198587 2.6983721 -1.816309 -0.42203343 -0.65516716 0.62661296 0.0017913654
-1.0694897 2.7344944 -1.8554962 -0.42545041 -0.66143668 0.61765158 0.0020921465
2.9388723 0.092479751 -3.8733528 -0.16268596 -0.81943101 0.54960543 0.0031391734
2.3426607 0.1615576 -3.9525199 -0.08697769 -0.85507947 0.51114964 0.0018661635
2.0114727 1.8574152 -2.7486377 0.04693567 -0.76662034 0.64038295 0.0027525334
5.0857816 1.5393231 -2.2183039 -0.40564519 -0.44151786 0.80032116 0.0032571172
7.7142301 -2.3442714 -0.29639786 0.034054574 -0.90407503 0.42601481 0.0014948432
4.3595772 1.7800077 -2.4732876 -0.340606 -0.3957428 0.85286295 0.002535247
1.1577842 2.0379822 -2.5384061 -0.0023138423 -0.56806928 0.82297748 0.0040193168
-0.44344461 -4.7674627 -3.3701618 0.21856897 -0.85851359 0.46387711 0.0032744915
-1.5585041 2.7156579 -2.0356407 -0.075821884 -0.66456044 0.74337775 0.0013097827
6.1221342 1.5844214 -1.2610589 0.79489619 0.51632577 -0.31866553 0.00068885239
-1.7872077 3.0865676 -1.6208833 -0.045228992 -0.86901438 0.4927153 0.0028534592
-0.025873782 2.7870009 -1.3156567 0.039867818 -0.94392592 0.32774138 0.00096914312
5.1289191 -1.3263003 -3.3897116 -0.50489438 -0.05679829 0.86131042 0.0015317368
7.8200636 -2.3389604 -0.29914224 0.0095286258 -0.90097666 0.43376291 0.0017050251
4.0238476 2.3494222 -2.2878799 -0.3469952 -0.5792405 0.73761421 0.0010196838
1.9345064 -5.9362645 -3.3922424 -0.15669909 0.38940695 0.90763849 0.028832769
5.7276773 1.4499071 -1.9192886 -0.57541013 -0.45984256 0.67634904 0.00079058181
1.7594002 -0.76298141 -4.6083179 -0.18246388 -0.33003402 0.92616653 0.0035516429
3.1841681 3.065068 -1.653121 -0.011885411 -0.7913264 0.61127836 0.0017520456
-2.7829461 2.8023939 -1.7084595 0.17039199 -0.65956485 0.73207974 0.0037277839
7.9259634 -2.3390431 -0.29934335 -0.058603872 -0.891909 0.44840151 0.0026977751
8.0273581 -2.3451624 -0.29225594 -0.13905965 -0.88004506 0.45407391 0.0032881515
-3.3555996 2.1991057 -2.0730958 0.34724063 -0.59501863 0.72482884 0.00051662215
5.39468 0.61565226 -2.6287472 -0.47433946 -0.31393653 0.82246333 0.0021042177
-0.87880707 1.8829519 -2.5637617 -0.05545643 -0.59500504 0.80180645 0.0034508598
-2.1062603 1.4664445 -2.7301095 -0.11271422 -0.37307796 0.920928 0.0025433414
-1.9017291 1.4616392 -2.7173948 0.030489467 -0.42510214 0.90463173 0.0036883054
-0.14083147 2.1798925 -2.2786191 0.015876917 -0.70571148 0.70832145 0.003653429
-0.25123435 2.1787462 -2.2754619 0.0075342124 -0.7221061 0.69174129 0.0022981062
5.0976691 -3.18349 -3.3064208 -0.6525867 -0.09404739 0.75185484 0.0041462905
8.1253347 -2.3584497 -0.2774561 -0.23746137 -0.85982037 0.45201883 0.0033171708
8.218833 -2.3794782 -0.25414816 -0.34603426 -0.83377355 0.43021154 0.0045953225
8.3100033 -2.4068458 -0.22364275 -0.46253094 -0.78778219 0.40677309 0.0053841323
-0.5620845 8.127306 -2.2395511 0.60331756 -0.53060204 0.59537333 0.0032409634
-0.43476596 8.1898527 -2.3122504 0.61592066 -0.51767719 0.59384519 0.0031188412
-0.27380827 8.2750721 -2.4114084 0.62411612 -0.502343 0.59844011 0.0041566873
-1.9739261 1.7115269 -2.5790813 -0.072838344 -0.47308418 0.87800109 0.0020471669
5.4822297 0.57814389 -2.5893877 -0.50193995 -0.27187374 0.82106084 0.0023301083
5.4676828 1.7583513 -1.8510268 -0.40028 -0.63771868 0.65809631 0.00059469487
7.4169955 -2.8012171 -0.82956541 0.079083972 -0.66111875 0.74610168 0.00042519163
-1.7677084 2.7206888 -2.0393696 -0.011121217 -0.67555672 0.73722416 0.00049365987
8.1395798 -2.8391485 -0.78719908 -0.37444016 -0.45007792 0.8106938 0.0040664547
0.84448802 8.9731274 -3.2149959 0.67261767 -0.43039599 0.60195076 0.0035830329
0.99428183 9.0204506 -3.2828212 0.35547432 -0.76801711 0.53271735 0.13334736
-1.7702384 1.7041038 -2.5754135 0.033407789 -0.47622949 0.87868619 0.0021683546
3.3296685 2.5380268 -2.2880249 0.006653599 -0.67137551 0.7410875 0.0021422019
2.0279093 1.6778324 -2.9602051 0.011522935 -0.65368623 0.75667799 0.0039324374
2.8584385 0.42972142 -3.2342517 -0.19167902 -0.70424479 0.68359232 0.014411047
3.2018216 2.7987282 -1.9653776 0.012398249 -0.79846042 0.60191965 0.0021767167
-2.6518884 2.4407668 -2.1369855 0.22988634 -0.65045613 0.72391927 0.00081349513
3.7003815 2.039892 -2.5528448 -0.25394344 -0.47971684 0.8398717 0.0031907482
-0.89785892 1.6437852 -2.7119961 -0.048254211 -0.49339831 0.86846393 0.00073605002
2.1280649 1.7720211 -2.8602724 -0.05356038 -0.73093778 0.6803391 0.0025692587
5.1750283 2.5036817 -1.2551699 -0.53379536 -0.73761725 0.41350126 0.0011256383
5.3429327 -0.60006398 -3.140208 -0.49054524 -0.17251559 0.85416847 0.002509169
7.9491291 -2.7959926 -0.8321287 -0.21049681 -0.57722712 0.78898668 0.0042892681
0.74767506 -0.57243294 -4.608161 0.17930774 -0.42986065 0.8849116 0.0016192182
8.3185387 -2.896944 -0.72140807 -0.56383914 -0.30978191 0.76558512 0.0076296902
0.98643517 2.8098977 -1.5503033 0.055266138 -0.81607288 0.57530051 0.0031029477
-3.6429772 -5.0256414 -1.0101339 0.39164206 -0.84756714 0.35811511 0.00030816044
0.9274177 -5.944077 -3.6045766 -0.3461473 0.12751251 0.92947435 0.004549623
5.1786337 1.5153761 -2.1911402 -0.35961157 -0.50044626 0.78754878 0.0026778234
1.051532 2.0392094 -2.5392818 -0.016126608 -0.63333511 0.77370965 0.0058038807
1.5584619 1.3812498 -3.0408366 0.27061182 -0.47261563 0.83869165 0.0027512831
-4.4313798 -5.6685777 -0.86198264 0.80976045 -0.38130605 0.44597504 0.020338036
2.3588064 0.58674455 -3.2001562 -0.11231633 -0.3576107 0.92709202 0.041817334
4.4431868 -0.99983603 -3.7286782 -0.49980417 -0.10462897 0.85979563 0.00179367
-1.1867307 3.0102224 -1.5488117 -0.25971872 -0.85517895 0.44857007 0.0017027502
6.0558815 1.56375 -1.4404691 0.75876522 0.50440437 -0.41213053 0.00144312
4.1166883 2.3240976 -2.2606475 -0.3652229 -0.5720104 0.73444968 0.0011265173
-0.38603663 -6.039609 -3.9320598 -0.16971985 0.35934079 0.91764337 0.024458708
1.3436313 0.26752114 -3.6681163 0.16767704 -0.928101 0.33243486 0.00071971316
5.1057906 -0.23869424 -3.1216276 -0.32847106 -0.35315931 0.87600529 0.00048936246
4.9149933 -0.19604677 -3.1653831 -0.32517469 -0.34079266 0.88211215 0.00074452581
1.943143 -0.091845892 -4.2908459 -0.054879986 -0.65616369 0.75262034 0.0040855538
5.1761284 -1.0210557 -3.2994344 -0.55430794 -0.21915808 0.80293989 0.004378621
4.0744858 1.1373035 -2.7800894 -0.27479702 -0.2994059 0.9136973 0.0092295902
-0.77813917 1.9796617 -2.4652956 -0.047827277 -0.68607986 0.72595245 0.0050910655
-2.219274 2.2585633 -2.3521471 0.090854332 -0.46474132 0.88077295 0.0013545796
-0.33355641 -4.7510257 -3.384171 0.22457086 -0.80484289 0.5493595 0.0043159286
2.129544 2.275346 -2.396559 -0.025871789 -0.59502238 0.80329257 0.002262197
2.0270391 2.2787347 -2.399549 -0.023667399 -0.56999058 0.82131028 0.0016355498
1.916962 2.2776442 -2.399472 -0.0025881841 -0.55519062 0.8317191 0.00098096277
3.9262667 2.6621892 -2.0266535 -0.27984402 -0.7552833 0.59265035 0.0016380877
-0.40891746 2.6726179 -1.5905883 -0.033474948 -0.86352152 0.50319982 0.0045497911
0.7934581 -6.0871701 -3.6451123 -0.17242743 0.51755577 0.83809596 0.063509539
-0.98921603 7.8112779 -2.082134 0.58086795 -0.45681241 0.67373204 0.0041746171
-0.85227817 7.8763971 -2.157511 0.60412484 -0.45755771 0.65243703 0.0023238098
-0.71181554 7.9485745 -2.2414508 0.59475219 -0.46043399 0.65899199 0.0021490611
-0.55876833 8.0205145 -2.3236103 0.58364046 -0.44389191 0.67994392 0.0028650078
-0.42405376 8.0867491 -2.4013386 0.60484219 -0.42126462 0.67579734 0.0024139334
-0.2692644 8.1680841 -2.4937265 0.60738593 -0.40357554 0.6842581 0.0022181582
-0.13469477 8.2341299 -2.5716927 0.61404216 -0.38424882 0.68942368 0.0028239989
0.009446728 8.3126459 -2.6631963 0.62951905 -0.36467788 0.68608731 0.0038841385
0.16230196 8.3955364 -2.7576301 0.63971061 -0.34636876 0.68614799 0.0030173885
0.31704077 8.48664 -2.8617017 0.66188276 -0.30845547 0.6832031 0.0028390165
7.9519749 -2.5865059 -0.64481217 -0.11864596 -0.72462881 0.67884922 0.0019910389
2.247653 2.8982081 -1.8645662 -0.15576413 -0.66779757 0.7278626 0.0018476847
-0.057125706 -0.0099802185 -3.3819654 0.32291099 -0.49489763 0.80672473 0.015352475
-1.6600873 1.7099316 -2.5803359 0.085022494 -0.48815855 0.86860371 0.002101979
1.1460077 8.996933 -3.4327226 0.067258917 -0.86013663 0.50560975 0.11544842
1.2272907 9.0232306 -3.4718418 -0.24009925 -0.90298086 0.3563396 0.14114441
0.0056993174 6.3533454 -2.1101387 0.13016419 -0.73428267 -0.6662479 0.0016129606
1.9312786 0.090334266 -4.0762463 0.002917602 -0.81767291 0.57567573 0.0014608554
-0.06928575 1.5100313 -2.7746675 0.19286187 -0.6293726 0.75279111 0.0055561969
4.7052097 -0.39630577 -3.3570604 -0.42335829 -0.37957448 0.82261229 0.0008133559
4.6628971 2.4474106 -1.7926062 -0.35771161 -0.7171734 0.59808421 0.00048645042
4.7559857 2.4221411 -1.7664813 -0.38122219 -0.71866512 0.58154112 0.0005519577
-0.011918297 -6.080812 -3.8012788 0.29831514 -0.52242076 -0.79880202 0.045974292
-1.3538082 2.6999204 -2.0204635 -0.18045768 -0.63558936 0.75064051 0.0032007254
3.9758081 2.9490764 -1.5350058 -0.28477004 -0.80979371 0.51297188 0.00084366353
8.0459528 -2.8141661 -0.81157762 -0.30341008 -0.51608998 0.80099529 0.0038698853
3.7998769 -0.091029599 -3.6789408 -0.34970325 -0.66955537 0.6552887 0.0016014489
3.8938539 -0.11506888 -3.6528418 -0.40443116 -0.64939135 0.64399248 0.00204817
4.3044376 2.376539 -2.1179879 -0.39186537 -0.63732421 0.66352046 0.0021062668
5.9634609 1.78622 -1.2785861 0.71782869 0.60120553 -0.35110375 0.00048466725
4.3138237 -0.63384742 -3.7104642 -0.57246739 -0.34893289 0.74197501 0.0017158545
6.0600619 1.3623207 -1.6239923 0.73119742 0.46771652 -0.49657986 0.0016322571
6.2112608 1.2415384 -1.4925939 0.79389036 0.46221703 -0.39508668 0.0017154258
1.8861895 0.30589035 -3.7011368 0.019291356 -0.90476197 0.42548043 0.0012646714
1.9235144 2.6922538 -2.0396919 0.096408732 -0.67551315 0.73101801 0.0038324622
-0.65251791 -5.8368554 -3.9570253 -0.0057390649 -0.22482282 0.97438276 0.0070202472
4.2307491 -0.58792025 -3.7586844 -0.57105649 -0.36985147 0.73287404 0.0024161735
-2.4444146 3.0397177 -1.5639714 0.1404845 -0.74688417 0.64994472 0.0035783567
2.137341 2.693032 -2.0428877 -0.06974522 -0.6316005 0.77215052 0.0019721035
1.7052879 2.5781145 -2.1153631 0.15904967 -0.74203837 0.65121603 0.0017451529
-1.0791322 2.4126258 -2.1173975 -0.27960628 -0.56145459 0.77883828 0.0038422255
3.4635999 0.37051168 -3.1694064 -0.070000701 -0.67873502 0.73103946 0.017834596
5.4612298 1.4469817 -2.1171618 -0.42643765 -0.51362091 0.74454314 0.0014625964
1.2939816 1.0742878 -3.1304135 0.14598702 -0.44494855 0.88357717 0.0014701276
-1.2835418 2.3272147 -2.2285879 -0.21609841 -0.52818996 0.82116801 0.0027140814
-1.0845189 2.3007197 -2.200285 -0.20127527 -0.61634046 0.76132298 0.0056123175
5.0328908 2.2441013 -1.7749836 -0.54137874 -0.63398463 0.55224323 0.0017441174
-0.87716073 1.9884887 -2.474761 -0.088938124 -0.67165881 0.7355029 0.0038145143
3.219137 2.4298549 -2.3697546 0.0067271432 -0.68319905 0.73020118 0.0028174636
-1.4767561 2.3643332 -2.2685843 -0.20375115 -0.48661417 0.84952462 0.00078389421
2.2343447 2.2708051 -2.3911455 0.012947856 -0.62793046 0.7781617 0.0034004811
1.5634634 0.28904828 -3.6874664 0.084719792 -0.92490715 0.37063369 0.00085293705
3.6897957 -0.40453619 -3.9554451 -0.34087083 -0.39206812 0.85445285 0.0026093419
1.4871497 2.2706387 -2.3880641 0.065826744 -0.6269455 0.77627712 0.0035060553
4.6725039 2.0688646 -2.1862869 -0.40097773 -0.55229849 0.73087841 0.0025789873
0.83146423 2.2179112 -2.3261251 0.20227627 -0.7723673 0.60210717 0.0019595863
0.71269625 2.1965334 -2.3018279 0.17710626 -0.77524054 0.6063295 0.001935976
-0.99973434 7.6855979 -2.1449406 0.57241458 -0.36349681 0.73499089 0.0013732963
-0.86426139 7.7509799 -2.2222717 0.59628099 -0.35742754 0.71881467 0.0012278837
-0.71825671 7.8294044 -2.3118544 0.58065295 -0.36482969 0.72783339 0.002471857
-0.5763737 7.8906031 -2.3816538 0.55299383 -0.34926239 0.75644803 0.0027091564
-0.43907499 7.9549708 -2.4566715 0.57533962 -0.31785297 0.75362706 0.0038844571
-0.28980723 8.0308228 -2.5420661 0.57968068 -0.29349267 0.76015282 0.0032399066
-0.15398823 8.095788 -2.6192555 0.57830155 -0.27226073 0.76905227 0.0038408753
0.00035577465 8.1784182 -2.7109766 0.6000796 -0.2479095 0.76055592 0.0020675326
-2.0763185 1.7195108 -2.5880473 -0.1178145 -0.46318093 0.87839806 0.0015633883
-1.2066454 1.7612405 -2.6338289 0.098410077 -0.53462762 0.8393383 0.00051303627
-1.1009377 1.7656442 -2.6406329 0.052188281 -0.53230208 0.8449443 0.0005678974
0.59874207 2.1828294 -2.2856514 0.10374598 -0.7494604 0.65386993 0.0040575052
-3.1158252 2.5624626 -1.8524232 0.16630571 -0.60342455 0.77988541 0.0076542241
0.4928574 2.1792021 -2.2814651 0.049815331 -0.7135489 0.69883221 0.0030823206
1.1232311 8.8696814 -3.5055583 0.43034482 -0.47841451 0.76545602 0.098577306
1.2498809 8.9279003 -3.5655649 -0.079687729 -0.79784292 0.59757555 0.099834271
1.3565936 8.9429445 -3.5825598 -0.55247164 -0.83000576 0.076586857 0.094805412
0.38634673 2.1800873 -2.2813241 0.018407268 -0.67832053 0.73453552 0.0011901666
6.3493838 -0.31690985 -2.2357442 0.69369632 0.44440317 -0.56682557 0.0004742879
5.2912469 -0.29080623 -3.0662394 -0.42471412 -0.34775481 0.83587348 0.0011547233
4.1678896 1.1109872 -2.757592 -0.27015385 -0.38176146 0.88389766 0.014393519
4.5198102 -0.3431308 -3.4144497 -0.352299 -0.4618527 0.81398863 0.0030680145
6.2008166 0.62541026 -2.0369983 0.71230233 0.26058608 -0.65170568 0.0010135863
1.9174598 0.16917002 -3.9562771 0.0073302505 -0.85707831 0.51513404 0.0013585151
1.1157653 0.23267949 -3.633502 0.20684241 -0.92338908 0.32337096 0.00036479105
1.8099247 2.7808661 -1.9323183 0.22720607 -0.67504525 0.70191973 0.0028009275
0.28002486 2.1817997 -2.2826855 0.010617118 -0.66574651 0.74610245 0.00080783496
8.4135494 -2.8189812 -0.60158688 0.69672668 0.36106783 -0.61984026 0.0089294063
1.9151732 1.7707305 -2.8578353 0.1017716 -0.73862171 0.66639364 0.0034156814
5.2550683 -0.56289041 -3.1778748 -0.42719817 -0.22710589 0.87517118 0.0025265471
0.98480725 -5.7239256 -3.6277955 -0.26301101 0.1776239 0.94830108 0.00035208539
2.2398574 2.6842217 -2.033915 -0.11088609 -0.63784671 0.76213902 0.0011847105
1.462446 0.69085497 -3.3053675 0.078085065 -0.14514805 0.98632389 0.0072007715
6.313602 -0.79125357 -2.5393233 -0.65794021 -0.16529012 0.73470664 0.0020783844
4.0912986 1.977285 -2.4839411 -0.32556099 -0.44716102 0.83310086 0.0022081616
-3.2345171 -5.0592775 -1.4146883 0.39192927 -0.70925516 0.58595949 0.0026727242
0.85378081 0.026256733 -4.0209055 0.18936408 -0.89640123 0.4007569 0.0017477729
-0.87631273 -5.85885 -3.9427083 0.24116209 -0.25132024 0.93737876 0.013783356
-0.43082917 -5.161211 -3.7999866 0.042358361 -0.50557649 0.86174136 0.0040696543
-0.46403641 2.1796639 -2.274514 0.022418445 -0.73989642 0.67234713 0.00076655234
-3.8598068 5.9837461 -0.32937571 -0.045781638 -0.988002 0.14749937 0.001074575
-3.7655637 5.9822812 -0.308815 -0.0076759499 -0.98833513 0.15210116 0.00081821991
-3.6600807 5.9833603 -0.31167525 0.070238225 -0.98379475 0.16496795 0.001888267
-0.98415965 2.1880338 -2.2825549 -0.16574617 -0.70049 0.69414836 0.0027694271
-1.0851715 2.2003312 -2.2950213 -0.12515566 -0.66906017 0.73259437 0.0043499693
1.8007777 2.156508 -2.4695635 0.015254348 -0.52717227 0.84962153 0.00049820408
-3.0857167 6.2873654 -0.69392151 0.75127298 -0.52378863 0.40153998 0.011468025
4.8366375 1.7751348 -2.270565 -0.46755373 -0.38151908 0.79739368 0.0010562912
-1.8719718 1.7067152 -2.5757473 -0.021312356 -0.46975267 0.88254076 0.0016243536
-1.3260111 1.6309098 -2.6966453 0.13036422 -0.51248211 0.84874451 0.00051927223
-2.5041809 1.6131233 -2.6835964 0.079158142 -0.43528819 0.89680445 0.0011143126
3.5262215 2.3112121 -2.4443083 -0.13452144 -0.55733639 0.81931686 0.002513794
2.6701634 2.3999057 -2.3328846 0.13828591 -0.75613052 0.63964337 0.00049872528
1.9301755 2.9963825 -1.7676373 0.17743069 -0.75863224 0.62689352 0.0036525051
-1.7532811 7.1590538 -1.7491713 0.6485033 -0.29364663 0.70229274 0.0010457321
-1.6046293 7.2448807 -1.8482121 0.62708884 -0.29206562 0.72211993 0.0013903208
-0.88827151 1.7660928 -2.6412656 -0.042039953 -0.53121454 0.84619367 0.001543837
-1.3090202 7.3989153 -2.0237184 0.59007525 -0.28712526 0.75456625 0.0014417603
-1.1541913 7.4811759 -2.1147511 0.57938331 -0.27956685 0.76560915 0.0010581414
-1.0168973 7.5457654 -2.1897516 0.55921108 -0.27992737 0.78033561 0.0017267773
-0.87504053 7.6165719 -2.2716405 0.57676029 -0.27437487 0.76945829 0.0020173476
-0.74194407 7.6834316 -2.3526077 0.56011027 -0.26285893 0.78560913 0.0036513514
-0.10690586 2.7353547 -1.4618226 -0.010619572 -0.9237507 0.38284707 0.0010468176
-3.5587842 7.7092471 -7.0865245 -0.11038603 0.012450491 0.99381077 0.079940118
-0.99544519 2.9706476 -1.5077009 -0.33873859 -0.81852877 0.46396852 0.0034954704
-2.5910165 1.7394912 -2.6040864 0.11030382 -0.48416016 0.86799884 0.00024984166
-2.3759198 1.7491602 -2.6153815 -0.013176969 -0.49274659 0.87007308 0.0018092382
-2.1750207 1.7326695 -2.6011193 -0.13007268 -0.479684 0.86774671 0.00053699658
-0.0048524048 2.7346816 -1.4580094 0.022121498 -0.9203133 0.39055604 0.001778033
0.1013786 2.7367823 -1.4603077 0.076420397 -0.91087323 0.40554887 0.0022397174
-0.7858991 1.7608069 -2.6367717 -0.042267855 -0.51612896 0.85546732 0.0029442108
-3.4609318 -5.215714 -1.4695424 0.34608749 -0.70083034 0.62374699 0.0012722053
-3.3396108 -5.1849341 -1.5002986 0.33940625 -0.67923129 0.65072906 0.001685377
-0.6796875 1.7594141 -2.6346328 -0.018341975 -0.49581414 0.86823493 0.0055423877
1.243366 8.798399 -3.6309204 0.31748155 -0.48083037 0.81731731 0.097144693
1.3539505 8.837204 -3.6706967 -0.14395127 -0.76679534 0.6255421 0.079927489
-1.4311095 1.7371683 -2.6081705 0.14819379 -0.5197624 0.84135938 0.00067275495
-0.57348633 1.7619594 -2.6387889 0.00054088782 -0.44940376 0.89332861 0.0051354379
2.3423016 3.0737455 -1.6541393 -0.1432478 -0.77982771 0.609384 0.0025174348
2.843647 1.0121439 -3.0499983 -0.16774803 -0.34449628 0.92367899 0.0018269605
-0.38310382 2.4311781 -1.9352049 0.0044541997 -0.81785172 0.5754118 0.00088991271
2.1340599 0.16753745 -3.9595137 -0.021460144 -0.86214769 0.50620234 0.0015069537
1.8153788 0.1643648 -3.9575686 -0.00018845158 -0.85649532 0.51615477 0.0012292343
0.7060082 0.058277898 -3.8527291 0.22690019 -0.9161709 0.33037433 0.0004551803
1.4852459 -0.57350779 -4.6046004 -0.20315711 -0.35430264 0.91279614 0.0049702944
8.0524206 -2.6985817 -0.72976017 -0.24319638 -0.60873455 0.75518066 0.0043838685
7.7456846 -2.6802573 -0.75099069 0.015380413 -0.69585007 0.71802235 0.0011259775
1.6923308 1.740845 -2.825614 0.24183945 -0.67776954 0.69436455 0.0039477777
3.4743798 -0.61351317 -4.1374002 -0.41114673 -0.1779238 0.89403665 0.0041556922
4.6006651 -0.49011675 -3.4546175 -0.44264546 -0.38823414 0.80829406 0.0024058311
0.15680411 1.6399148 -2.7117631 0.19486681 -0.67600167 0.71066773 0.0013909756
0.040153179 1.7260313 -2.6026092 0.069687627 -0.61841846 0.78275299 0.0040885089
1.680089 1.8286086 -2.7172067 0.16136308 -0.69724882 0.69843113 0.0060480442
1.7959186 1.8401932 -2.7313061 0.14076073 -0.74310321 0.65420491 0.0039949049
-2.9733007 -4.9837675 -1.4940512 0.43175635 -0.57776695 0.69265562 0.0031961536
6.1370611 1.3030301 -1.5590671 0.76000553 0.47403437 -0.44461557 0.0021584926
5.8894157 1.1521087 -1.9999338 -0.55578965 -0.52583748 0.64388877 0.00065904582
3.2909198 1.7686056 -2.8557248 -0.19422542 -0.33565056 0.92174572 0.0051401057
3.7366157 2.6066859 -2.1647618 -0.2054155 -0.72650105 0.65574437 0.0014410624
-3.8259468 5.9556208 -0.4989624 -0.069689415 -0.97427624 0.214311 0.0032437395
-3.7164125 5.950067 -0.50696975 -0.01749946 -0.96408063 0.26503277 0.0060030837
-3.6137798 5.9520774 -0.5032894 0.11079134 -0.94524521 0.3069801 0.016402744
-3.5107818 5.9639711 -0.51070738 0.25432098 -0.91168118 0.32273558 0.022419093
-3.3738866 6.0038719 -0.5692699 0.5183295 -0.75783443 0.3962594 0.023313854
-3.2109268 6.0934229 -0.68214631 0.68719286 -0.5282625 0.498703 0.0055827741
-3.0589972 6.1928215 -0.80231565 0.70719904 -0.40889612 0.57677853 0.0056170784
-2.9113045 6.28334 -0.91377556 0.72417414 -0.32545373 0.60798985 0.0038206486
4.0249262 2.5505793 -2.1045489 -0.3354454 -0.68654495 0.64508331 0.0011636131
-2.5628607 6.5220828 -1.2020293 0.6932233 -0.25574815 0.67382073 0.0016490226
-2.3969965 6.6315746 -1.3348637 0.68316877 -0.23909442 0.69001037 0.0020101492
-2.2407887 6.726995 -1.4517779 0.66595674 -0.23342237 0.7085306 0.0013600419
-2.0830352 6.8211656 -1.5646549 0.64069474 -0.22517231 0.73403519 0.0019792421
4.1180863 2.5252521 -2.0781479 -0.36547071 -0.67687219 0.63896418 0.00099713972
-1.7716444 7.0124435 -1.7824309 0.63125253 -0.19178933 0.75148988 0.0015214974
-1.6100025 7.1102648 -1.8903954 0.61117333 -0.20154887 0.7654053 0.0018938214
-1.4716102 7.1825299 -1.9766737 0.57917482 -0.21178706 0.78721201 0.0017749545
3.3953583 2.9612453 -1.7431819 -0.11331981 -0.76335186 0.63596588 0.00066861446
2.7569802 2.9553537 -1.7311769 0.072756305 -0.7681582 0.63611281 0.0018194356
6.0584178 1.2640462 -1.7192487 0.68973494 0.50400925 -0.51984656 0.0024776589
5.9801283 1.3130609 -1.7721187 0.65559858 0.4909316 -0.57373923 0.0023326953
1.8106945 2.9775419 -1.7436584 0.26486057 -0.74531955 0.61183953 0.0032234609
0.60768628 1.7009854 -2.7804477 0.15478319 -0.55974388 0.81408167 0.0031072421
-0.5943318 1.6216885 -2.6941757 -0.063347362 -0.36939275 0.92711169 0.0042902846
-0.79899704 1.6357853 -2.7076805 -0.079100199 -0.4666656 0.88088953 0.0019405389
-1.1105111 1.6452255 -2.7146173 0.05011772 -0.50640768 0.86083651 0.00061963033
-1.2164627 1.6410954 -2.7081211 0.094980597 -0.50938278 0.85528237 0.00062740629
-2.6093988 1.6083894 -2.6724317 0.12546709 -0.42426234 0.89680517 0.00068703061
6.2772369 0.56514812 -1.9729927 0.73878056 0.24384651 -0.62828511 0.00099845079
3.6056316 2.8572097 -1.832599 -0.14815456 -0.82686353 0.54253751 0.0026160292
2.4445379 2.8693621 -1.8340706 -0.13164251 -0.68728065 0.71436375 0.0020623936
-0.2976861 1.4796252 -2.7422674 0.11004175 -0.50184304 0.8579303 0.006479179
-0.15656364 2.3554175 -2.0600066 0.043448012 -0.80676925 0.58926708 0.00075178884
1.0184863 2.4687226 -1.9919714 0.15534574 -0.83998406 0.51989853 0.0028956681
5.9769158 1.1111518 -1.9562752 -0.58885795 -0.52142423 0.61754602 0.00066969899
1.3403383 8.7172842 -3.7345405 0.24423674 -0.38536084 0.88985699 0.076267943
1.4560324 8.7416306 -3.7601335 -0.42548043 -0.65033454 0.62931025 0.12946032
1.5336558 8.7115469 -3.7395182 0.30095351 0.53968245 -0.78623778 0.12308833
-0.0091055622 0.29704502 -3.301652 0.18082526 -0.18852116 0.96527821 0.00053132517
-0.11343963 -6.0852118 -3.8468065 -0.27805606 0.60112113 0.74922508 0.013743304
0.10500608 0.31353632 -3.3178144 0.12213012 -0.19874725 0.97241133 0.0013983399
2.8579175 1.1404231 -2.988308 -0.18080857 -0.34881964 0.91958314 0.0016910491
-1.1786028 -5.6221342 -3.7576182 0.45989719 -0.28453368 0.84115112 0.0029485561
0.21523559 0.32191885 -3.3236301 0.043833844 -0.21218318 0.97624636 0.0013357677
0.59372216 0.035878476 -3.8332202 0.25140417 -0.90966022 0.33062699 0.00042900498
0.3174696 0.31500298 -3.3169322 0.040329177 -0.25259939 0.96673012 0.012534239
7.9539013 -2.6853445 -0.74422091 -0.15146449 -0.65572035 0.7396549 0.0035479418
7.8517861 -2.6795917 -0.75103414 -0.058439188 -0.68528187 0.7259295 0.0023427105
2.4416933 0.1534252 -3.9407108 -0.12504902 -0.8470493 0.51659483 0.0012184377
2.5430336 0.14190423 -3.930124 -0.15375331 -0.83622658 0.5263887 0.00092204631
1.683198 3.0340228 -1.6013601 0.29203403 -0.79596198 0.5302459 0.0039080963
0.7706756 -0.32241154 -4.4639177 0.13856083 -0.60723931 0.78234351 0.0026092804
8.3989868 -2.9427772 -0.67231685 0.689035 0.22151753 -0.69004405 0.0078736134
-2.6686864 3.0184891 -1.5377527 0.025877586 -0.61064512 0.79148144 0.014003566
5.0107031 2.4980028 -1.4494348 -0.48478085 -0.73431844 0.4751462 0.00061577768
-1.3215725 1.7488749 -2.6222751 0.13202396 -0.53070223 0.83721256 0.00040104904
4.806036 1.5190616 -2.3918343 -0.4417206 -0.31797317 0.83891356 0.0015031225
-3.47159 -5.1298251 -1.3446144 0.36237857 -0.76230419 0.53625935 0.0022415014
1.7703419 0.67678094 -3.2883389 -0.12643002 -0.25830197 0.95775545 0.0058702175
0.41977608 0.30965921 -3.3132479 0.067848235 -0.28503114 0.95611393 0.021886094
-3.8002555 5.9042583 -0.64942378 -0.1662192 -0.93326956 0.31840077 0.010253151
-3.698432 5.8953748 -0.64303368 -0.090863474 -0.91432017 0.39466745 0.0086874627
-3.5922518 5.8890543 -0.64222336 0.052436285 -0.87958348 0.47284594 0.011485425
-3.4866977 5.8970857 -0.64956403 0.21722507 -0.82193786 0.5265277 0.013034842
-3.3730931 5.9245257 -0.68306637 0.43206242 -0.69297999 0.57714885 0.020554502
-3.2224333 5.9879169 -0.76616788 0.60387635 -0.49929893 0.62131631 0.010623517
-3.0631111 6.0721688 -0.86816746 0.64596033 -0.36691621 0.6694085 0.0030158025
-2.9097567 6.161025 -0.97488284 0.67325974 -0.28602701 0.68184298 0.0030165138
-2.7428496 6.2709551 -1.1065259 0.6870482 -0.21589752 0.69379616 0.0014968759
-2.5730321 6.3791285 -1.2353736 0.66413683 -0.18172933 0.72518736 0.0011031006
-2.4264064 6.4698687 -1.3485444 0.65909672 -0.15788327 0.73529887 0.00097347656
-2.2626626 6.5713072 -1.4704074 0.64488536 -0.15066409 0.74928176 0.0008690948
-2.097955 6.6729436 -1.5900638 0.62020665 -0.15164869 0.76964045 0.0011098564
-1.9534849 6.7528615 -1.6844132 0.60250849 -0.13630101 0.78638762 0.0013091108
2.5329819 1.7419556 -2.8323054 0.070086464 -0.4825505 0.87305951 0.015380834
2.4313731 1.7437837 -2.831064 -0.030279735 -0.58472019 0.81066972 0.010798647
2.3289528 1.7518239 -2.839433 -0.092314065 -0.66060668 0.74503487 0.0071510193
2.2302575 1.7633864 -2.8515856 -0.099998698 -0.70455366 0.70256984 0.0028252604
2.0257697 1.7735747 -2.8625984 0.018654391 -0.73822367 0.67429805 0.002774402
2.6465368 2.9522359 -1.7252103 -0.0059934217 -0.75672334 0.6537078 0.0027797727
2.8668602 2.9649565 -1.7424049 0.10286243 -0.76898396 0.63093823 0.0010168019
2.5449855 2.9559543 -1.7289251 -0.093236439 -0.73678559 0.66966707 0.0031581817
0.49897742 1.6887035 -2.7656422 0.17847088 -0.59868568 0.78084803 0.0025093569
-0.25320581 2.2711432 -2.1724861 0.016972339 -0.77211475 0.63525641 0.0021949806
4.4248872 -0.32057357 -3.4373989 -0.35224614 -0.50497711 0.78798527 0.0026117302
4.5583758 1.1454625 -2.5971198 -0.29072541 -0.39383912 0.87199169 0.013813509
-2.8926117 2.7903912 -1.6936711 0.081798829 -0.6029979 0.79353797 0.0096739316
-2.6639454 2.8213997 -1.7313844 0.23335932 -0.69497603 0.68011153 0.0019948601
4.0004067 2.800884 -1.7725893 -0.26910812 -0.82115752 0.50327051 0.00078287424
3.9040594 2.8170595 -1.7928258 -0.23023789 -0.83596766 0.4981451 0.00068135944
-2.9427314 -5.7751493 -1.9529502 0.33266231 -0.25328785 0.90839475 0.0011033328
2.7849612 2.4095113 -2.3460486 0.13014719 -0.76018769 0.63653469 0.00026305957
0.52518916 0.31256512 -3.3181431 0.089791298 -0.30910254 0.94678038 0.022420349
-0.31231797 -5.0364671 -3.716392 0.034001481 -0.61270911 0.78957677 0.001951228
0.63606375 0.31897342 -3.3221431 0.09274327 -0.34375873 0.93446702 0.029940058
1.3184521 8.5614109 -3.7383592 0.47566637 -0.053743578 0.87798244 0.042281628
1.4247758 8.5915985 -3.7869501 0.1441225 -0.17790732 0.973436 0.12513672
1.5426788 8.6169033 -3.8243968 -0.62572795 -0.45934176 0.63045198 0.127621
1.618883 8.5733986 -3.7790973 0.4864426 0.41130018 -0.77084744 0.13472778
-0.30745175 1.0484233 -3.088496 0.24293225 -0.47416809 0.8462556 0.004528211
0.74664593 0.32634056 -3.3297391 0.09280929 -0.4031541 0.91041374 0.033682879
0.85202301 0.33164135 -3.3365886 0.075147979 -0.47097462 0.87894011 0.037959021
5.5511341 1.4131751 -2.0816905 -0.49167773 -0.47865096 0.72742444 0.0011601055
-2.8430548 -5.9043922 -2.0276017 0.35583258 -0.11538582 0.92739922 0.044889111
0.95847219 0.33252877 -3.3376317 0.071636118 -0.60013479 0.79668468 0.03031362
1.0645459 0.33521503 -3.3399627 0.079191461 -0.69539493 0.7142511 0.02913543
4.3321629 -0.29621658 -3.4625881 -0.40862331 -0.5396533 0.73607153 0.003830564
3.3287492 0.023483075 -3.8031757 -0.35336423 -0.75306213 0.55500549 0.0031266392
2.642431 0.13105577 -3.9169521 -0.17822844 -0.82867861 0.53059059 0.0017893339
0.16329369 1.5484556 -2.8162105 0.19249505 -0.67668927 0.7106598 0.0011579888
1.1799028 0.34235299 -3.3474045 0.11138334 -0.75539583 0.64573282 0.022853157
1.0913377 2.723958 -1.6560837 0.078239255 -0.76947069 0.63387179 0.0035395646
1.2898229 0.35563502 -3.3609021 0.15912956 -0.79157907 0.58998334 0.014409728
3.5956585 0.12409188 -3.5072863 -0.24946751 -0.81166667 0.52816969 0.0016742694
-2.8579195 -4.9461002 -1.534479 0.45280781 -0.49979356 0.73835731 0.0050885705
3.3632984 0.48380733 -3.0902121 -0.11595149 -0.52694398 0.84195322 0.0093844254
5.6298027 1.2573545 -2.1151597 -0.51394653 -0.48531258 0.70734054 0.0019237607
0.69575751 0.64677143 -3.2750449 -0.032517958 -0.2475642 0.96832561 0.001439104
1.4035008 0.37330171 -3.3799965 0.17578162 -0.80575991 0.56555438 0.010850857
-3.7794907 5.8460493 -0.78471994 -0.30986249 -0.89061624 0.33284822 0.013537063
-3.6838598 5.8249426 -0.76863056 -0.20696384 -0.8672725 0.45277411 0.0126513
-3.5850461 5.8173199 -0.75950819 -0.068684481 -0.82763356 0.55705041 0.017794343
-3.4759092 5.8130507 -0.76314282 0.10909783 -0.75039023 0.65192956 0.020705886
-3.3566065 5.830236 -0.78713018 0.32370868 -0.61108845 0.72234589 0.018255675
-3.2240767 5.8731203 -0.83854812 0.49054018 -0.45153707 0.7453084 0.01523904
-3.0790546 5.9394441 -0.91746444 0.5774852 -0.30492559 0.75731844 0.0060626469
-2.9337752 6.0145159 -1.007983 0.61575484 -0.21897705 0.75689828 0.0051603792
4.6558857 -0.79965878 -3.5377877 -0.50148278 -0.27934533 0.81882918 0.00051873014
4.2353806 1.5389444 -2.621069 -0.41026545 -0.26816344 0.87164825 0.0018511995
4.1474004 1.5801595 -2.6584706 -0.39948905 -0.27712262 0.87384874 0.0032268409
3.9655082 1.6394666 -2.7203095 -0.32378185 -0.32183272 0.88971287 0.0073087616
3.5834336 1.7200962 -2.806941 -0.23894943 -0.3427268 0.9085381 0.0077590086
2.9672513 3.0572569 -1.6414779 0.09283179 -0.80558121 0.58516765 0.00091411301
2.6711209 1.7716974 -2.8536379 0.16032125 -0.35430047 0.92128623 0.010980817
3.0956416 2.7956169 -1.9622027 0.060875345 -0.77685249 0.62673312 0.0020124372
-0.28842023 2.6020291 -1.7169021 0.034223605 -0.83377272 0.55104607 0.0018949322
2.1428547 2.8035274 -1.9612323 -0.073607117 -0.63140291 0.77195364 0.0021523891
0.65023524 -5.8709455 -3.6951287 -0.21773651 0.12889755 0.96745867 0.0020414803
1.8053458 1.7600166 -2.8467426 0.178367 -0.71964753 0.67103851 0.0039926483
1.4510589 1.6895509 -2.7696841 0.16902868 -0.58945745 0.78991723 0.0037650329
0.83649468 1.726089 -2.8082917 0.029125748 -0.49845669 0.86642522 0.0032555442
0.72255588 1.715112 -2.7957098 0.12129138 -0.51635492 0.84774172 0.0023092432
5.4267998 -0.63907033 -3.0953815 -0.54375196 -0.12326029 0.830145 0.0017712708
2.4836226 1.2207487 -3.0822208 -0.28095376 -0.23256373 0.93111712 0.0020663855
3.8288007 2.2824385 -2.4141235 -0.22134992 -0.50230932 0.83587652 0.0040642014
0.99154645 1.2130092 -3.0633183 -0.17851004 -0.4606486 0.8694464 0.0023967223
0.69264352 1.2478914 -3.0995028 -0.018507324 -0.41948143 0.90757525 0.0050264313
0.58657414 1.2451893 -3.0952163 0.038532026 -0.40348047 0.91417658 0.0038470775
0.039990757 1.2103031 -3.0598633 0.13931158 -0.53205335 0.83517158 0.0021920558
-0.074533701 1.1959409 -3.0454683 0.17915334 -0.56159568 0.8077836 0.0022640245
-2.4231391 2.581265 -2.086834 0.22491002 -0.65078533 0.72518545 0.00075990084
2.9821007 2.9730213 -1.7548279 0.079597466 -0.76751095 0.63607484 0.00092358794
7.4186773 -2.5972521 -0.63595575 -0.045941535 -0.67552429 0.73590505 0.011538076
1.5178895 0.39058426 -3.3946888 0.15243393 -0.806723 0.57093078 0.0095401434
1.627669 0.40081233 -3.4049721 0.09428294 -0.81960827 0.56511325 0.0094574839
1.4105427 8.4342794 -3.7674448 0.37160724 -0.046337511 0.92723292 0.10108601
1.5294094 8.489028 -3.8589561 -0.10589258 -0.20860696 0.97224993 0.13062647
1.7378778 0.40400404 -3.4111085 0.064689748 -0.83428681 0.54752243 0.031978127
1.8436407 0.41038582 -3.4174967 0.037700128 -0.85074866 0.52421886 0.027312623
0.059994984 1.9587754 -2.4465621 0.026125742 -0.57178205 0.81998944 0.0015545182
1.9539994 0.41516238 -3.4217114 0.0025063409 -0.87640607 0.48156637 0.029853135
-0.78842151 2.2586789 -2.1560466 -0.075036168 -0.7184906 0.6914773 0.0039731092
-3.4655781 -6.0983095 -1.8609056 0.36474174 0.2967 0.88257158 0.11463504
-3.5781679 -6.1256876 -1.7890364 0.25558206 0.82459301 0.50470203 0.10260808
2.0600672 0.41951352 -3.4248557 -0.027275661 -0.89521182 0.44480544 0.019451899
0.95279354 1.844173 -2.7317414 -0.10351097 -0.59744954 0.79519778 0.0048695561
3.7058048 -0.16767594 -3.7976732 -0.34054187 -0.6116339 0.7140975 0.0027063871
-3.5411305 -5.7993326 -1.7312599 0.3351517 -0.21004933 0.91845119 0.00088953873
8.1072741 -2.292501 -0.14442033 -0.20780028 -0.90555352 0.36985388 0.0043613575
6.2139359 0.74655086 -1.9670467 0.72172403 0.3267805 -0.61018765 0.0011880189
-0.89028865 2.2673457 -2.1649036 -0.18067335 -0.6850121 0.70577306 0.003451474
1.1691977 2.2591596 -2.3732617 0.10371207 -0.71373308 0.69269681 0.0047463365
2.1915836 0.41711089 -3.4160795 -0.047717914 -0.90514135 0.42242414 0.016639477
1.5338016 1.244489 -3.0995195 0.20993595 -0.40130791 0.89155978 0.0049657682
-1.5042953 -4.6660891 -2.0340943 0.3163332 -0.38527 0.86689121 0.016564775
2.2719173 0.41566709 -3.4256151 -0.041420482 -0.90286231 0.42792991 0.0079611698
0.27437899 1.8653473 -2.5498817 0.20427221 -0.62745017 0.75138479 0.0023654629
2.3742983 0.41325194 -3.4200387 -0.055715565 -0.89615899 0.4402214 0.00916827
1.0517875 0.11763819 -3.9123154 0.20831826 -0.90691561 0.36620703 0.0014188639
7.4741983 -2.2836316 -0.15501219 -0.41256461 -0.85338455 0.31863031 0.042829715
2.5001986 0.41079485 -3.4070063 -0.088742539 -0.90585107 0.41419628 0.0095691774
-3.7572632 5.7843666 -0.92551798 -0.47993147 -0.834472 0.27078089 0.016049458
-3.6672733 5.7536354 -0.89418989 -0.39231884 -0.80856633 0.43852752 0.021220384
-3.5735669 5.7292376 -0.8736164 -0.24703249 -0.76108307 0.59977287 0.029021338
-3.4738383 5.718224 -0.86240101 -0.059509914 -0.67698556 0.73358649 0.03391118
-3.3631687 5.7211199 -0.86806524 0.15212674 -0.54931724 0.82164961 0.0240322
-3.23721 5.7464495 -0.89611495 0.34419641 -0.4029229 0.84804595 0.014969838
-3.1187747 5.7813029 -0.94371939 0.45566019 -0.27534556 0.84649783 0.0086483229
0.76649225 -0.12436326 -4.2654171 0.14544137 -0.79492092 0.58902252 0.0035925205
4.4162698 1.4792166 -2.5572398 -0.34419042 -0.27894172 0.89650685 0.0011456052
4.3241491 1.5078995 -2.5851083 -0.38400826 -0.28602114 0.87791204 0.0011913988
2.3526342 0.085243851 -4.0697613 -0.099477194 -0.78912729 0.60612077 0.0047625592
5.1429563 -0.67639107 -3.2591567 -0.39098462 -0.18731174 0.90113556 0.0025499882
-3.0882006 2.924087 -1.6425894 -0.22753924 -0.31302509 0.92208523 0.0074366359
6.2316427 -0.73850155 -2.5931392 -0.61105621 -0.18055083 0.77072155 0.0016530942
1.9412574 0.006425384 -4.1913166 -0.02439389 -0.75258297 0.65804547 0.0043571098
-0.56378907 2.0818241 -2.3731575 0.048591446 -0.71962142 0.69266433 0.00055602466
5.1337667 0.82828075 -2.6559739 -0.35139334 -0.50044578 0.79125011 0.00192798
5.0397234 0.85269952 -2.6801689 -0.31266767 -0.54715216 0.77644283 0.0020656064
4.6538935 0.92661029 -2.7589889 -0.25752455 -0.68137139 0.68513805 0.0016044517
0.74418253 -5.8929143 -3.6688797 -0.23907581 0.1192966 0.96364468 0.0029856865
7.5782046 -2.2963893 -0.14583658 -0.12912729 -0.93511152 0.32998869 0.013495106
-2.2501235 1.9932581 -2.4719741 -0.022819391 -0.42842793 0.90328777 0.0032097113
5.8039927 1.1872119 -2.0379851 -0.53739053 -0.51944619 0.6643697 0.0011993195
1.2010567 2.8251672 -1.5669711 0.22317709 -0.74612463 0.62728781 0.0048909122
0.012533514 2.6710074 -1.5905864 0.013249876 -0.88733059 0.46094346 0.0015094886
5.81811 1.7197968 -1.6104506 0.61266249 0.59312487 -0.52234811 0.0015660487
-0.56932151 -5.9879994 -3.9843338 -0.13793917 0.070471831 0.98793042 0.030720877
-4.0971127 8.587677 -6.6909485 0.081337243 -0.89597231 0.43659812 0.064137854
3.4106789 2.794071 -1.9611676 -0.048176095 -0.82671356 0.56055665 0.00088070909
7.4022756 -3.2489977 -1.1819803 0.10216776 -0.56658787 0.81764293 0.00052804715
-2.6626854 2.7273388 -1.8325386 0.27142084 -0.7054562 0.65472305 0.00047521095
-0.68413484 2.3549454 -2.057265 -0.041438833 -0.75114304 0.65883756 0.0038059074
-1.9838326 2.5092623 -2.217181 0.03867406 -0.60647142 0.79416418 0.00083685358
3.9956141 1.995597 -2.5055969 -0.26316792 -0.44757065 0.85464799 0.003290094
1.4722887 8.2906008 -3.8218095 0.36060151 0.12829718 0.92385411 0.060405768
1.5886803 8.3317175 -3.8756843 -0.19555847 -0.021142449 0.9804641 0.077282555
-2.2078733 0.18644834 -3.1103108 -0.055075407 -0.023840962 0.99819756 0.0016758055
-5.0674605 -2.3995533 1.4896339 0.72346282 0.64500612 -0.24610686 0.00061524648
3.517333 2.1957533 -2.520462 -0.21426374 -0.53819793 0.81512821 0.0025625362
4.0709591 1.7398685 -2.6267805 -0.35756215 -0.44672865 0.82011145 0.0041879741
2.0123076 1.449379 -3.1150937 0.017957378 -0.40331605 0.91488451 0.0081766564
-0.67394459 2.0754158 -2.3653476 0.03207349 -0.72754091 0.68531418 0.0015432221
-0.44447488 -5.3016391 -3.8679183 0.0014660286 -0.33611163 0.94182104 0.0052704406
-0.34115937 -5.3063951 -3.8636212 -0.068081737 -0.28672811 0.95558977 0.0060180821
-0.23844372 -5.3129907 -3.8534389 -0.10732334 -0.23036388 0.96716815 0.0055853059
2.8974276 1.9251696 -2.8269184 0.065693423 -0.48999998 0.86924356 0.002407413
4.7173629 1.5510767 -2.4283888 -0.39772624 -0.30261046 0.86616439 0.0013921626
3.8807251 1.779959 -2.6723351 -0.28730723 -0.49920332 0.81746596 0.0043217544
3.7844796 1.7983737 -2.6943116 -0.28348473 -0.51424468 0.80943733 0.0037695104
-0.80844754 1.5127281 -2.7771134 -0.14188832 -0.44468066 0.88437933 0.0024701159
-1.0137979 1.5238415 -2.7867708 0.005248283 -0.47685766 0.87896484 0.0012757818
-1.11965 1.5213468 -2.782408 0.059812929 -0.46272439 0.88448209 0.00065670995
3.6565974 1.5563291 -2.8298926 -0.2301925 -0.17301059 0.95764226 0.0026444495
3.8471134 1.5129478 -2.7869473 -0.28021428 -0.16342776 0.94592351 0.0024082998
4.215065 1.4072789 -2.6692739 -0.38915563 -0.22357731 0.89362806 0.001719932
4.9624882 1.2086565 -2.4609776 -0.2445966 -0.49009851 0.83664566 0.002338595
1.4134024 0.010797091 -4.198308 0.048772372 -0.78025979 0.62355107 0.0020051158
-1.1942089 -4.8869505 -3.0429568 0.37970212 -0.85209858 0.36021417 0.0089695407
2.5786834 0.40280354 -3.4067824 -0.14168818 -0.88531965 0.44286969 0.011260855
5.4433241 0.20335777 -2.7886438 -0.55693197 -0.37008405 0.74354863 0.0017858709
0.92202139 2.3874154 -2.105602 0.15972774 -0.83009171 0.53426099 0.0025209358
-2.4389663 2.9530883 -1.6732062 0.2040475 -0.75043571 0.628658 0.0010417465
0.38795742 1.5719537 -2.8425176 0.14054222 -0.65264982 0.74451065 0.001119816
2.4409902 3.0602458 -1.6401317 -0.15712005 -0.76709276 0.62199843 0.0017900587
